1590
90.679341 42.920889 28.313948
95.286368 42.958334 30.930121
78.884713 45.024265 28.176385
73.557101 44.808727 29.917760
82.896783 44.993450 27.539214
86.973968 45.002662 27.584934
90.699007 45.028647 28.082146
93.452852 45.070122 29.165622
95.783167 45.119917 30.417629
70.288690 47.109462 30.818186
75.182101 47.408796 28.814556
78.736992 47.201486 27.950057
82.803445 47.140535 27.568314
86.965418 47.138010 27.597711
90.833363 47.156219 28.292908
95.825686 47.216204 30.402377
72.343153 49.264030 29.451825
75.097318 49.325203 28.516787
69.862389 49.190051 30.469815
78.726793 49.315602 27.875994
82.755320 49.287031 27.526768
86.873674 49.244142 27.727198
90.659885 49.214792 28.263373
93.502548 49.249893 29.217457
95.993821 49.299642 30.315744
74.950974 51.363460 28.536055
69.825588 51.312587 30.347685
78.678428 51.400535 27.802001
82.766583 51.404328 27.634130
86.856874 51.342360 27.839283
90.545812 51.114885 28.604778
95.514962 51.370272 30.623592
72.402068 53.400335 29.312566
75.198144 53.387702 28.445985
69.854337 53.432517 30.256843
78.810399 53.433602 27.961513
82.791208 53.495443 27.782019
86.813707 53.462573 28.230396
92.177388 53.699607 29.772403
75.344091 55.209869 28.859914
70.326531 55.549609 30.525179
78.839560 55.363994 28.268134
82.814127 55.455805 28.326138
86.480206 55.338920 28.521264
89.242710 55.414282 29.330836
91.850133 55.499594 30.340537
74.105061 57.840118 30.181816
78.775116 57.043642 29.070054
83.328552 58.133262 29.757430
86.642961 56.716762 29.310022
86.857860 58.042926 30.261704
90.552908 57.375269 31.277657
78.662110 59.641715 30.775250
86.554435 32.750962 34.267858
82.164095 34.289106 32.634661
91.060265 34.895201 33.841314
77.989781 36.240122 32.321675
92.202190 36.230438 32.695692
73.933412 38.473911 32.892119
93.645877 37.046624 33.836620
95.037803 38.927844 33.545734
70.163110 41.242953 33.531912
96.149586 40.877615 33.400973
70.864827 43.273562 31.884463
69.340009 42.583062 33.198977
96.628253 42.375130 32.606412
68.455816 45.125912 32.494734
70.651083 45.044506 31.176327
67.176404 43.271181 34.347709
66.448700 45.121935 33.801749
97.423096 45.175107 32.011326
97.868806 43.244292 33.917802
98.917670 45.166762 33.806026
65.825032 47.119261 33.356795
99.414319 47.236118 33.556742
67.625143 49.187578 31.681854
65.310602 49.252159 32.949958
97.940794 49.296955 31.790298
99.762292 49.279893 33.331979
65.308341 51.330549 32.612559
99.519698 51.330215 33.512380
67.518838 53.416016 31.403182
65.085143 53.390431 32.612581
95.129958 53.458687 30.947149
97.201348 53.368439 32.306682
99.101352 53.402917 33.771930
65.512050 55.457356 32.684784
94.658704 55.302461 31.804288
97.907961 55.267216 34.050775
95.988751 56.034391 33.124818
68.316303 57.582047 31.981764
70.822483 57.689709 30.937492
65.833697 57.494117 33.114457
94.861948 57.454274 33.834585
92.217509 58.196083 32.837076
71.152397 59.460853 31.899577
67.150795 59.453773 33.722130
69.633041 60.263639 33.008851
74.551490 59.580481 30.985399
82.823693 59.678661 30.826548
86.538023 59.536360 31.682657
90.843854 59.579876 33.739521
88.064774 60.286997 33.019645
74.711556 60.858037 32.137993
70.989396 61.555435 33.974122
74.726413 62.010957 33.349581
78.690901 62.041363 33.284991
82.683050 60.855634 32.120687
82.686109 61.943666 33.413768
86.577694 61.437974 34.038214
82.850146 31.346784 35.215566
79.043204 32.645112 34.617493
82.724290 32.584115 33.872029
79.058426 30.654165 36.921750
82.851464 30.223916 36.487162
77.504911 31.790719 35.841775
86.511188 30.565841 36.884456
88.104129 31.760620 35.679829
75.146811 34.697767 34.607332
78.540543 34.384927 33.284581
74.854323 32.592027 36.731919
73.536011 34.006339 35.962794
90.528058 32.591105 36.620698
91.948958 34.037299 35.574842
72.302876 36.667392 34.895286
74.747165 36.516580 33.516735
71.183212 34.864901 37.038487
70.128385 36.767368 36.275060
93.470466 35.001560 36.743785
94.941256 36.892360 36.543800
69.382386 38.581217 35.698705
96.170860 38.841832 36.351605
66.165324 41.268744 36.319314
96.827904 40.328775 35.470579
65.571832 42.599101 35.919393
97.948199 41.203671 36.739515
99.166736 43.081210 36.449061
64.486883 45.083575 35.159915
63.301439 43.267490 37.046681
62.494230 45.034981 36.491340
100.259617 44.933560 36.165173
61.718062 46.839687 35.996912
102.263414 47.506234 36.947083
58.654801 49.464851 36.694001
62.772116 49.507432 34.362347
101.250460 49.262078 35.016520
102.779085 49.244657 36.766738
60.390635 51.387328 35.257966
62.647407 51.376313 34.015082
58.220414 51.365018 36.428974
102.650999 51.035494 36.639069
62.433808 53.374308 34.044416
58.169406 53.352499 36.396523
100.946762 53.622610 35.670660
60.505267 55.355354 35.281822
62.715739 55.383220 34.061706
58.404427 55.352393 36.437645
100.099761 55.444446 35.944165
62.939276 57.283782 34.589556
59.207965 57.286115 36.706577
61.361950 58.057646 35.747761
98.924188 57.365051 36.708176
96.379583 58.132348 35.541861
62.392328 59.472032 36.280143
94.936859 59.472522 36.209795
92.249280 60.256550 35.361842
67.051405 61.869107 36.179769
69.591735 62.439527 35.493463
90.680882 61.533055 36.267777
87.981121 62.147488 35.597239
74.777974 62.986422 34.845092
71.020861 63.548950 36.758793
74.784970 63.940263 36.351698
78.756941 63.958096 36.359896
82.701013 62.861888 34.916049
82.848867 63.801795 36.513585
86.501337 63.187043 36.701270
82.819028 29.441939 38.013714
79.532049 29.260414 39.674689
82.816763 28.738972 39.720234
77.775216 29.964768 38.470508
86.032749 29.101819 39.735382
87.607786 29.754409 38.529120
75.347961 30.792902 39.381965
73.522048 31.979023 38.391187
89.605812 30.430483 39.516639
91.829247 31.919332 39.247636
71.183430 32.948250 39.493595
69.679260 34.284497 38.723375
93.357241 33.411744 39.331405
94.720952 34.946320 39.455758
68.139648 36.832241 37.734979
67.348117 35.115720 39.917436
66.149637 36.890479 39.179782
95.951766 36.801512 39.393017
65.328591 38.629671 38.572255
96.621704 38.293805 38.578515
62.199610 41.234748 39.083489
97.759022 39.158469 39.791824
99.043844 41.022715 39.456687
61.640697 42.611616 38.601375
100.420898 42.823943 39.045491
60.417132 45.048793 37.746910
59.231902 43.352506 39.543389
58.110797 45.114755 39.031638
103.099183 45.380641 39.831314
57.578302 46.837981 38.367703
103.802863 47.328960 39.026872
54.378271 49.179990 39.222122
104.360332 49.250503 38.817562
56.110364 51.314237 37.688316
53.975685 51.260135 38.952750
104.400837 51.231750 38.559781
53.986061 53.317073 38.963249
104.129661 53.377045 38.783980
56.328834 55.334285 37.746006
54.216534 55.325419 39.076902
101.928792 55.456735 37.612982
103.677980 55.436045 39.168545
54.809981 57.224554 39.422131
102.719009 57.362283 39.812560
100.549256 58.064575 38.550697
58.073740 59.911361 38.963238
99.455718 59.349299 39.284693
61.913917 62.022188 38.894931
95.109074 61.720161 39.273736
67.054486 63.923677 39.061620
69.675855 64.306232 38.401397
83.332114 64.719881 38.485299
86.901045 64.337559 38.759145
90.584470 63.858668 39.657548
74.738146 64.727398 37.953437
71.169510 65.138372 39.644341
74.672403 65.544478 39.634639
78.238497 65.531892 39.527105
77.095081 29.579499 41.994670
79.586615 28.823254 42.029839
74.790236 30.417851 41.965699
82.891454 28.529130 42.138450
86.187737 28.578529 42.172876
88.678153 29.258152 42.178374
90.883283 30.208869 42.084088
72.555257 31.493218 42.026987
70.251455 32.539450 42.067617
92.775146 31.811436 41.830790
68.133871 33.520168 42.088201
65.835124 34.455380 42.212683
95.573511 34.691739 42.267256
64.169598 36.921049 40.617481
63.206616 35.443367 42.807710
62.143479 36.916150 42.029485
96.368050 36.220534 41.562828
61.324884 38.549800 41.400917
97.574559 37.099250 42.742389
98.870676 38.961963 42.449669
58.114334 40.956462 41.877044
100.319966 40.746211 42.002344
54.557835 43.384998 42.296858
103.234036 43.233589 42.567975
55.218433 45.336816 40.522008
53.673877 44.648881 41.832839
103.929549 44.650405 41.686196
52.648120 47.190368 40.953792
54.877759 47.102666 39.690099
51.334283 45.331104 42.826882
50.546604 47.197751 42.179969
105.113208 47.277590 40.778248
105.364279 45.390189 42.768688
106.485124 47.244113 42.525876
50.110071 49.193161 41.838008
106.961961 49.251149 42.144232
51.921473 51.246226 40.302851
49.842099 51.241804 41.646400
105.857125 51.302827 40.344309
107.319378 51.324053 42.144231
49.891366 53.296968 41.695321
106.995399 53.408783 42.193086
52.203940 55.314320 40.465685
50.152719 55.323548 41.839606
105.161517 55.427280 40.786921
106.642102 55.445401 42.596770
50.625529 57.246913 42.081187
105.533401 57.296925 42.762888
104.087051 58.075574 41.601381
53.730054 59.884900 41.435700
103.282142 59.394837 42.520993
56.504588 61.485445 40.930776
58.728043 61.599623 39.827807
54.526443 61.519357 42.065725
99.409503 61.724430 42.291059
58.813319 62.704412 41.009582
55.622959 62.882824 42.942886
58.579001 63.639704 42.400358
62.009436 64.157641 41.753116
94.786799 64.000859 42.224449
92.180286 64.581501 41.434204
67.135944 65.787609 42.447361
70.876892 66.120728 41.775804
74.694480 66.388461 41.666765
78.646547 66.412234 41.457425
82.905212 66.286733 41.640827
86.983309 65.236821 40.456940
87.000374 66.078464 41.996487
90.850273 65.634142 42.643530
79.412565 29.100905 44.655603
75.154027 30.462078 44.704949
77.373732 29.759178 45.805939
83.010099 28.498579 44.881520
86.658778 28.663081 45.015098
91.490206 30.100021 45.012588
69.997608 32.375411 44.906392
95.192162 32.725598 45.469393
65.318809 33.858412 44.364446
96.122695 34.177782 44.499951
60.153881 36.837774 43.455954
59.336370 35.230208 45.751860
62.410942 34.539152 44.737567
58.141967 36.735923 44.855432
97.446293 35.104958 45.549122
98.792109 36.908409 45.284918
57.279274 38.403399 44.200620
100.237476 38.676347 44.886002
53.934342 40.877984 44.648302
103.245251 41.133716 45.399612
50.415419 43.368358 44.977062
104.000681 42.529371 44.453582
49.642149 44.639815 44.354980
105.515572 43.254838 45.443672
106.908015 45.121315 45.045948
48.550905 47.210553 43.529838
47.403345 45.328187 45.493817
46.562288 47.206409 44.884749
107.984410 47.198183 44.768710
46.094697 49.185743 44.608104
108.550658 49.253815 44.256249
47.817975 51.231211 43.047624
45.772587 51.210139 44.438405
108.717300 51.323522 44.336366
45.692623 53.260454 44.463818
108.514645 53.396591 44.343569
48.033049 55.356323 43.198167
45.769644 55.397129 44.549455
107.970919 55.448822 45.103719
46.180238 57.551755 44.629956
106.899821 57.487619 45.159887
49.530762 59.875910 43.780329
105.588246 59.263386 45.382464
104.297072 60.113116 44.341613
52.456317 61.548578 43.318940
50.092085 61.563697 44.537542
103.219419 61.464451 45.432204
51.374102 63.187908 45.508930
54.949884 63.884276 44.721172
58.111807 64.520914 44.302494
99.350054 63.972248 45.457323
63.015133 65.988571 44.795835
65.680358 66.373332 44.143010
94.955638 65.892969 45.351132
92.354429 66.314315 44.391887
70.810910 66.864484 43.522632
67.206326 67.141857 45.346449
70.769879 67.606485 45.214584
74.721507 67.750083 44.934998
78.793055 67.135430 43.222922
78.841828 67.871510 44.995044
83.010942 67.716521 44.986597
87.022549 66.814304 43.587083
87.091639 67.564822 45.323262
90.816885 67.050636 45.516311
83.143037 28.765093 47.874771
77.877901 30.056430 48.036768
86.840991 28.538456 47.971043
90.280609 29.098922 48.235190
92.063993 29.772617 47.157902
73.257699 31.659336 48.345625
93.881285 30.578421 48.248232
95.964065 32.135690 48.053549
62.390917 33.904431 46.452661
59.359809 33.887122 48.356663
62.553026 33.344214 48.221655
57.919807 34.642355 47.375088
66.186955 33.009398 47.927497
69.955354 32.462525 47.981799
97.406535 33.531847 48.006448
98.721706 34.942150 47.944901
56.229112 36.703569 46.251969
55.722236 35.185181 48.372744
54.334111 36.686641 47.630665
100.174595 36.619686 47.663130
53.358454 38.356066 47.045611
103.229983 39.075322 48.233761
49.938328 40.896658 47.535096
104.016752 40.436310 47.295689
46.420265 43.303876 48.018930
105.546666 41.151843 48.300300
107.028337 42.917802 47.865390
45.855328 44.629419 47.146199
108.232697 44.807921 47.523480
44.758636 47.206426 46.352931
44.086776 45.342827 48.177447
42.938876 47.136157 47.937683
110.194647 47.486975 48.451827
42.358610 49.157265 47.640990
109.689485 49.308478 46.248283
110.695671 49.344578 48.296576
43.801867 51.158006 45.887703
41.862850 51.128343 47.342614
110.442630 51.295284 48.084732
41.614707 52.991663 47.237978
109.453732 53.242627 46.226990
110.165969 53.131335 48.157769
39.119535 55.579345 48.408155
43.248861 55.424008 45.955948
109.455661 54.567506 48.015116
108.659476 55.993203 47.810898
41.553603 57.822770 46.730084
107.581234 57.682823 47.827525
44.202022 59.607069 45.929291
46.716431 59.635979 44.984704
41.596137 59.618954 46.826650
106.534402 59.377032 47.876078
47.021182 61.423092 45.675110
42.555866 61.536308 47.040120
45.331762 62.185975 46.615846
105.386897 60.742107 47.944520
104.132658 62.124210 48.016197
46.559024 63.467551 47.301880
49.722342 63.881016 46.950483
102.159105 63.712636 48.241218
100.384552 64.574662 47.180995
54.737458 64.683824 46.371272
51.179144 64.841472 48.110125
54.624618 65.428852 48.138022
58.154054 65.967806 47.620812
98.753795 65.642711 48.116768
96.398602 66.370280 47.111513
63.416249 67.540114 48.361310
66.993349 68.028016 47.467445
70.767440 68.425221 47.240924
74.708787 68.588605 46.939952
78.861093 68.656475 47.089330
83.053398 68.523501 47.088312
87.120657 68.280051 47.629286
91.236864 67.819372 47.912142
94.734145 67.097125 48.184447
80.771739 29.476763 50.874211
83.604534 28.761928 50.825140
78.232116 30.331605 50.938152
87.016338 28.524937 50.853665
90.361099 28.720039 50.900204
92.844584 29.419808 50.894352
95.015504 30.375509 50.778420
75.868583 31.180570 50.946633
73.386292 31.974588 50.910491
96.906914 31.871278 50.450186
56.595323 33.760318 50.534591
59.173560 33.146061 50.534940
54.378861 34.501803 50.535286
62.707903 32.862529 50.553414
66.551045 32.705970 50.613298
70.179917 32.431120 50.742537
99.838154 34.459342 50.460021
52.640321 36.741792 49.052829
52.626071 35.488268 50.689093
51.012288 36.671362 50.677467
103.131035 37.084256 51.105337
49.716313 38.381619 50.147179
103.983531 38.419687 50.134145
46.064672 41.179202 50.495855
105.466204 39.201000 51.176085
106.985764 40.856608 50.856414
45.128324 42.573180 49.790410
108.258084 42.667433 50.447316
43.142502 43.281577 50.987362
42.093277 45.141077 50.212084
110.371473 45.371843 51.218123
41.202553 46.894471 49.969978
111.145210 47.300657 50.971223
39.221415 49.380930 50.825016
111.258868 49.292021 50.828542
40.157866 51.184930 48.893896
38.564605 51.200674 50.581729
111.049094 51.283011 50.697459
38.194454 53.221441 50.190712
110.347515 53.194038 50.681149
37.703788 54.762414 49.746600
108.898119 56.019834 50.641237
36.851878 57.475243 49.337043
38.825620 57.570569 47.976224
36.368102 55.547266 51.001941
35.225119 57.383182 50.926695
107.879198 57.815731 50.628845
38.647340 59.523177 48.019709
34.463778 59.445920 50.762359
106.731581 59.562095 50.666762
36.299992 61.416070 48.968576
38.933851 61.410575 47.902277
34.030345 61.486016 50.089651
104.633621 62.218780 50.747955
39.207203 63.106930 48.373802
34.429249 63.525964 50.190686
42.623279 63.233396 47.704910
103.073629 63.799291 50.790724
38.494320 65.740228 49.696586
42.613824 64.624421 48.633867
42.493148 66.011129 49.676544
46.816938 65.881230 50.023130
51.003118 65.858635 50.229031
54.347006 66.166727 50.437473
101.307068 64.965200 50.789358
99.535738 66.007517 50.754289
59.037771 67.260678 51.095139
62.082850 68.039008 50.862718
91.549527 68.292152 50.734439
94.932211 67.617073 50.742739
97.366705 66.820106 50.759949
67.146752 68.724686 49.183220
64.607784 68.756777 50.940053
67.211914 69.387370 50.960583
70.770894 69.713745 50.618794
74.726347 69.282911 48.762293
74.726498 69.979222 50.589549
78.813189 69.869938 50.616745
82.913001 69.139769 49.023175
82.780409 69.724907 51.035440
86.258448 69.301066 51.252176
83.559584 28.886319 53.749520
78.259409 30.397220 53.772780
87.183839 28.393119 53.726372
90.846030 28.641786 53.756227
95.723719 30.084628 53.667313
73.553059 31.842326 53.407284
99.537394 32.371618 54.127450
58.778343 32.639982 53.155483
53.548130 34.104652 52.925061
62.746500 32.351817 52.924063
66.859898 32.282438 53.343146
70.523563 32.296804 53.254644
102.522603 34.933073 54.092703
49.672689 36.267492 52.957845
104.051422 36.472868 53.719456
46.010407 38.733463 53.412834
105.329190 37.755442 53.699697
106.658540 39.031287 53.735428
42.640233 41.183293 53.797517
108.065818 40.690567 53.705315
41.939946 42.565806 52.877822
110.154937 43.383947 54.076601
40.557223 45.113399 52.022759
40.399239 43.283849 53.991926
39.121669 45.104303 53.815894
111.094746 45.201533 53.833224
38.319149 47.062517 53.538557
111.470253 47.185541 53.684328
37.755590 49.153585 52.916154
111.556928 49.208258 53.555274
37.317111 50.995602 52.708287
111.083415 51.192650 53.447506
35.987548 53.566282 53.678716
110.442187 53.039052 53.384874
35.185688 55.378308 53.460052
109.627316 54.572607 53.449943
108.793280 56.090957 53.531284
34.254604 57.204535 53.353854
107.808595 57.782512 53.546471
33.126269 58.908925 53.238173
106.840984 59.480261 53.541490
32.430255 61.630281 51.593858
32.110048 60.302255 53.363334
31.120210 61.708517 53.404010
105.820767 60.923728 53.543099
104.696438 62.349881 53.547316
30.728139 63.559059 53.351976
102.947483 63.832748 53.554861
32.282283 65.573267 51.626459
34.774082 65.617715 50.288077
30.157025 65.589724 53.396919
51.458886 66.641439 52.317774
53.758029 66.546349 52.168605
99.471265 65.951746 53.555592
35.151726 67.427955 51.096347
30.897226 67.580571 53.527284
38.460889 67.524800 50.543584
42.218857 67.600069 51.150702
46.752803 67.908648 53.447166
43.868470 68.482105 52.527438
55.322962 67.073122 53.608127
58.568536 67.660319 53.583728
61.704545 68.473459 53.232120
95.121187 67.609647 53.533312
92.140930 68.468206 53.534218
34.568417 70.349793 53.079060
38.432152 68.990321 51.659913
38.307809 70.495809 52.765441
42.248270 69.830487 53.640847
66.927758 69.959303 53.481437
70.775598 70.463986 52.756358
74.730382 70.644301 52.780923
78.722932 70.561689 52.824435
82.669877 70.248492 53.615170
86.419022 69.679175 53.649602
89.335553 69.082265 53.604936
80.847471 29.470737 56.683386
83.741552 28.727312 56.658783
78.036210 30.302570 56.702593
87.272324 28.342608 56.647835
91.017861 28.346895 56.705244
94.495849 29.016789 56.934499
96.374637 29.681672 55.814378
59.479749 31.534541 56.974630
54.421982 32.607446 56.672399
62.818707 31.871627 54.928272
62.841146 31.358318 56.910328
66.503910 31.536271 56.690615
68.156438 31.998975 55.142914
74.777016 31.117354 56.652841
73.212081 31.827155 55.200456
98.113696 30.481685 57.003461
100.347786 31.956261 56.850324
49.830874 34.401463 56.541132
70.708276 31.887682 55.401485
101.929315 33.388280 56.795633
103.412923 34.785927 56.648887
46.027841 36.558941 56.627028
104.752997 36.336524 56.231504
42.591656 39.015353 56.637522
107.106546 38.810738 56.531859
41.685383 40.422217 55.652835
108.571896 40.424726 56.554286
40.199945 41.152713 56.641138
38.851203 43.006554 56.256363
109.612843 41.888544 56.535553
110.562249 43.352455 56.506476
37.817896 45.020350 55.904281
111.116623 45.145223 56.479838
37.379567 46.460751 55.344635
111.453138 47.091984 56.463277
36.774933 49.174334 54.787546
36.384211 47.348290 56.669468
35.872133 49.254338 56.687582
111.269747 49.122524 56.353448
35.672029 51.269118 56.371071
110.852455 51.110938 56.208563
35.252101 53.346121 56.294968
110.088413 52.972141 55.998272
34.673113 55.267930 56.228318
108.574746 55.795247 56.502621
33.795784 57.087718 56.158521
107.576972 57.674470 56.475282
32.675923 58.867049 56.153974
106.477924 59.456843 56.418660
30.702812 61.599385 56.151867
104.375465 62.098704 56.356423
29.469131 63.513171 56.121583
102.765023 63.639333 56.338660
28.671487 65.701276 56.231345
101.002844 64.791220 56.353565
99.227145 65.818413 56.382876
28.720606 67.887050 55.589323
51.723032 67.517874 56.237504
48.537253 68.210412 56.280819
55.128259 67.452249 56.386320
58.336706 68.047045 56.364540
91.924940 68.448226 56.300546
94.878778 67.561564 56.321163
97.161826 66.686533 56.346570
30.060276 70.144203 55.958825
46.061148 69.273784 56.289529
43.860211 70.569735 56.325050
62.991005 69.508305 56.542082
65.894412 70.386799 56.180264
86.876575 69.762731 56.287942
83.725905 70.486702 56.303745
32.750904 72.228943 54.816849
34.912919 72.287247 53.888342
31.159438 72.240604 56.440736
37.983241 72.112171 54.328251
41.281281 72.114589 56.651023
39.227610 72.889504 55.638474
71.051787 70.993979 54.600517
68.481729 70.999635 56.320693
71.188416 71.458000 56.498243
74.704172 71.482615 56.450181
78.413874 71.024216 54.696979
78.240828 71.404977 56.604970
81.017949 70.998086 56.487871
35.085848 73.253371 55.176211
32.960407 73.295584 56.717099
35.036917 73.884565 56.761748
37.766972 73.517980 56.843514
83.567279 28.811740 59.500213
78.164918 29.985153 59.564096
87.263931 28.321044 59.514580
91.015575 28.398266 59.501886
94.398111 28.775309 59.555810
96.663198 29.536973 59.588685
98.708642 30.478822 59.638313
56.405300 31.479617 59.218948
59.277842 31.015922 59.276859
53.602669 32.103564 59.187054
62.837051 30.920936 59.355097
66.713181 30.954136 59.358434
70.744159 30.980959 59.326881
74.627596 30.658035 59.526306
100.677527 32.014617 59.662342
50.619322 33.149486 59.383492
48.917083 34.030371 58.355795
103.569862 34.754172 59.641806
46.786043 34.896062 59.347527
45.164945 36.073702 58.410432
105.882691 37.335866 59.502170
43.147300 37.004772 59.407292
41.844597 38.314090 58.449144
107.281780 38.912334 59.427293
40.273715 39.099643 59.432099
38.711156 40.802918 59.030808
108.472719 40.721609 59.420525
37.496428 42.680362 58.620471
110.164724 43.369060 58.879066
35.554791 45.393377 59.215199
110.810987 45.071525 59.007478
35.097583 47.290595 59.002341
110.815114 47.023665 59.239010
34.883870 49.274118 58.947812
110.752392 49.080424 59.089614
34.823183 51.290264 58.982836
110.243764 51.005336 58.912780
34.779815 53.308546 59.041656
108.913025 53.771189 59.896301
34.558647 55.245827 59.098003
108.112290 55.671410 59.573646
33.922363 57.115786 59.153437
107.130747 57.510936 59.342331
32.945251 58.831964 59.209893
106.127678 59.221298 59.217436
31.886476 60.253358 59.172224
30.682018 61.675411 59.149739
105.012354 60.595746 59.165213
103.735140 61.951586 59.128177
29.518773 63.515212 59.177215
101.767294 63.499174 58.986138
28.274071 65.352247 59.280790
98.519288 65.449903 59.115245
99.999047 64.320621 60.164051
27.716300 68.010922 57.536143
27.560990 66.762014 59.323491
27.144100 68.058417 59.354883
48.839265 68.435933 59.274263
51.889004 67.648105 59.265495
54.943842 67.666958 59.212626
57.849012 68.171624 59.161164
94.890896 67.174277 58.892648
92.058806 68.276034 58.951871
96.457984 66.277986 60.094274
28.312287 69.505325 59.316032
44.549556 70.655513 59.270264
60.303879 68.963043 59.134334
62.749563 69.824482 59.026692
65.686259 70.651197 58.690783
83.939439 70.639058 58.920314
86.850408 69.930769 58.908540
89.459280 69.145492 58.920607
30.940529 72.109362 59.291570
42.176550 72.251292 59.289051
70.839670 71.643422 59.054341
74.669174 71.831459 59.048146
78.574290 71.540071 59.122489
34.878963 73.816845 59.305195
37.742501 73.908902 59.307349
39.975807 73.220776 59.295306
80.867290 29.384556 62.196072
83.674316 28.877050 62.067604
78.077167 29.895422 62.393098
87.249455 28.738967 62.125232
91.067515 28.634248 62.011529
94.398490 29.223609 61.955987
97.919424 30.626820 62.130135
96.061876 29.936327 63.121340
59.042537 30.872623 61.948684
53.722690 31.876286 61.850915
62.778637 30.564389 62.044604
66.753771 30.561353 62.172661
70.739212 30.531397 62.288166
74.597176 30.336080 62.376544
100.205648 32.052308 62.417487
48.379142 33.657039 61.901342
50.692781 32.737096 61.819144
46.233435 34.548970 61.976238
101.782677 33.443908 62.463764
103.251601 34.840464 62.582038
44.265016 35.557976 62.034074
42.311103 36.565358 62.055255
104.306179 36.548456 62.814589
40.620459 37.661781 62.068936
38.945264 38.865896 61.958363
106.506127 39.127771 61.992731
37.404834 40.481393 61.538497
107.708684 40.959312 62.262009
34.631025 43.192613 61.885638
108.502990 42.981882 62.596071
34.080389 45.207822 61.269608
110.024887 44.971340 61.144080
109.006276 44.898493 63.224924
33.581584 47.241977 61.136180
109.206205 46.751395 63.189279
33.702647 49.271647 61.119121
109.848014 49.132755 61.538093
33.796921 51.337417 61.573075
108.818200 51.666281 62.803286
34.388312 53.424743 61.865659
108.287021 53.601385 62.653044
34.698337 55.338087 61.980035
107.454874 55.488658 62.353185
34.519702 57.228250 62.091413
106.502815 57.346538 62.075498
33.666893 59.249727 62.217497
105.217572 59.158057 61.817385
31.759336 61.650963 61.865407
33.188312 60.681339 63.154061
102.966154 61.407431 61.870323
103.938590 60.114655 62.941939
30.363169 63.541119 61.987699
99.453594 63.922067 62.218993
29.599932 65.780071 62.164557
96.022612 66.182276 62.019852
27.987523 68.047759 61.082606
29.249269 68.031854 62.814987
51.484324 67.475408 62.215856
48.513814 68.065647 62.211569
54.821381 67.632014 62.002987
57.794399 68.370886 61.922505
92.020289 68.293090 61.356902
30.256990 70.190070 62.484553
46.074646 69.167924 62.147656
43.872487 70.537313 62.093361
62.405198 70.017946 61.887622
87.001013 70.098143 61.315907
84.510551 70.673000 60.798093
31.201869 72.209849 62.106100
41.286772 72.086909 61.837147
67.285977 71.433079 62.253548
70.754375 71.950600 61.944329
74.620555 72.004656 61.878025
78.584880 71.769827 61.929563
82.477417 71.214293 62.073051
32.961155 73.249857 61.859275
35.031286 73.839512 61.830924
37.769610 73.480410 61.723607
39.238689 72.837963 62.870516
83.328524 29.373943 63.923831
78.797230 30.145581 65.031518
82.733871 30.070532 65.624914
86.967619 30.171056 65.485898
91.086556 29.340585 63.819677
91.135151 30.168612 65.353910
94.902503 30.696636 64.663304
56.414161 31.261969 64.738130
59.248766 30.753148 64.746377
53.684707 31.869671 64.679550
62.867042 30.504710 64.865168
66.769354 30.369657 65.020233
70.731291 30.411741 65.108739
74.716516 30.341519 65.158778
98.844029 32.710173 64.768575
96.476805 31.930468 65.607987
50.768975 32.804082 64.397726
46.275151 34.516665 64.804301
101.750011 34.932541 64.725891
100.063788 34.104448 65.608014
42.060278 36.428825 64.838255
103.047610 36.676876 64.943902
38.168472 38.549703 64.864651
103.497612 38.622872 65.109340
34.440202 40.667108 65.070465
106.088628 41.265448 64.454060
31.133527 43.155865 64.728746
106.992761 43.064680 64.858576
32.431142 45.155476 62.813418
30.572329 45.122394 64.082593
107.188098 45.027449 65.301776
30.230833 47.235722 63.912384
107.773788 47.088839 65.482722
32.230667 49.260207 62.808425
30.517236 49.280995 64.257492
107.967485 49.249793 65.254500
31.007159 51.101648 64.997667
107.818847 51.409131 65.328520
33.903178 53.712381 64.855539
107.287532 53.407499 65.155570
35.232244 55.457190 64.798567
106.578175 55.302053 64.950632
35.733568 57.318085 64.776360
105.480640 57.105378 64.587174
35.233274 59.245057 64.668903
103.056919 59.680368 65.041001
34.672868 61.272736 64.817604
100.310194 62.092213 65.376946
32.164558 63.512593 63.915730
34.246214 63.429321 65.496816
98.696044 63.572818 65.046174
34.381596 65.666118 65.492751
97.278211 64.842828 64.750274
95.844424 66.095349 64.565492
31.641720 68.053321 64.320083
34.536128 68.077522 65.649521
38.640065 68.017656 66.014296
46.690203 67.413869 64.827643
50.183992 66.267989 65.980838
47.917934 66.298882 65.998490
54.778325 67.429184 64.655729
57.492855 68.291309 64.703152
94.393805 67.595038 64.627525
34.634409 70.282558 64.957196
38.364288 70.187213 65.280120
42.754281 67.976895 65.724848
42.164621 69.788780 64.312954
59.816821 69.246219 64.725670
62.032176 70.202207 64.744507
90.785095 69.736376 64.355362
32.784301 72.165577 63.632175
34.924089 72.195275 64.484356
37.993240 72.018839 64.023505
64.472339 70.993888 64.819788
67.171333 71.692132 64.865429
70.686481 72.055113 64.805723
74.551367 72.167910 64.746742
78.516435 71.933043 64.762353
82.364163 71.573485 64.816472
85.968447 71.161867 64.938109
35.083970 73.179430 63.338006
59.204441 31.043708 67.499771
54.520232 32.092498 67.868971
57.152729 31.518269 68.792892
62.966543 30.607988 67.640151
66.780390 30.536650 67.731903
70.647387 30.597973 67.790217
74.655080 30.835379 67.652886
78.407339 30.868336 67.350434
81.990866 31.257932 67.326841
87.045431 32.634127 67.657862
83.330717 32.672439 68.389917
91.082464 31.385550 66.405568
91.064600 32.789688 67.302207
94.811509 32.872149 66.543104
49.391638 33.746558 68.095630
83.899106 34.328004 69.166965
87.291367 34.526406 68.412162
91.129282 34.689645 67.855167
95.008254 34.791336 67.324120
98.443966 34.931919 66.482638
44.299505 35.575444 67.605671
46.498019 34.674201 67.721531
42.199219 36.436799 67.612179
87.580914 36.540812 68.993609
91.238090 36.783533 68.276507
95.080823 36.863063 67.703943
98.613349 36.863152 67.086192
101.048550 36.792819 66.164674
40.126008 37.409904 67.655466
37.835224 38.354478 67.759133
91.476483 38.954018 68.733368
95.177593 38.954837 68.020541
98.903161 38.921371 67.244225
35.212463 39.322574 67.921646
33.608363 40.070071 66.898825
95.167461 40.959603 68.489297
92.133321 40.485871 68.915436
98.953135 41.011833 67.741585
102.235200 41.260030 66.788199
31.297684 40.581080 67.702362
26.170274 42.823738 66.896496
99.020370 42.848625 68.264014
96.263304 42.411806 68.673389
102.567701 43.081711 67.434452
104.982877 43.117982 66.298208
28.205144 45.084756 65.151138
25.450621 45.054128 66.101202
103.188283 45.124754 67.851298
25.490386 47.327630 66.092775
105.634567 47.389712 67.385463
103.884371 46.646933 68.318459
28.286075 49.345542 65.556359
25.641623 49.457415 66.815721
106.353789 49.305303 67.402206
26.795878 51.155312 67.914539
106.170837 51.303324 67.438822
31.190511 53.112642 68.296217
34.000147 54.197574 67.817780
106.064704 53.272854 67.347823
36.286632 55.525679 67.507362
105.134152 55.127622 67.315463
38.918233 57.499968 68.141737
38.241858 56.196753 68.665166
102.956098 57.453357 68.081503
103.735533 55.940119 68.578917
37.176091 59.302357 66.335542
39.404448 59.413580 67.716101
42.159370 59.738794 68.912228
101.870691 59.300437 67.626109
39.368941 61.371630 67.326217
42.551423 61.556889 68.300575
45.649954 61.934807 69.126783
100.642850 60.637293 67.688233
99.370366 61.917873 67.845020
36.838803 63.337392 66.510452
39.638609 63.278670 67.343608
42.858327 63.381262 67.773708
46.187012 63.650412 68.162597
49.507361 64.116006 68.807536
98.187201 63.558560 67.659299
39.717809 65.050056 66.971320
43.040556 65.062898 67.241629
46.309840 65.313629 66.987956
53.680950 66.159465 68.296518
96.411498 66.018682 66.699947
42.957760 66.492983 66.537235
57.716746 68.193673 67.611863
95.578794 67.613190 66.574458
62.062323 70.177689 67.596002
95.098840 69.659389 66.881397
66.974035 71.617028 67.643942
70.574340 72.114852 67.646950
74.508655 72.176728 67.626960
78.469322 72.078854 67.597585
82.291265 71.921171 67.555796
86.191986 71.836854 67.436447
90.634821 71.817250 67.315553
63.194444 31.037165 70.153460
58.050321 31.852993 70.832701
66.746712 30.889666 70.274490
70.270987 31.177343 70.159867
75.279871 32.400215 70.774920
78.218015 31.703800 68.811865
78.338238 32.713047 69.978311
80.763020 32.760205 69.154009
52.348335 33.365654 70.744647
54.937330 32.532336 70.782190
49.754841 34.227154 70.668982
79.308826 34.288640 70.998891
46.907089 35.248730 70.293269
43.239096 36.750503 70.181113
45.537842 36.141537 71.251638
83.008598 37.022313 70.841130
38.445786 38.570420 70.362479
86.224285 39.277308 70.493444
83.675637 38.544534 71.135977
33.084717 39.623449 70.213595
35.435524 39.128075 70.184204
30.439655 39.952971 70.235385
90.182096 41.383649 70.079805
87.221067 40.746034 70.761001
22.592529 41.438908 68.614469
19.882983 42.908714 68.541515
22.537004 42.932705 67.449883
19.064525 40.948839 70.808164
22.408773 40.183753 70.028617
17.534576 42.787779 69.814349
26.335791 40.227207 70.073265
94.702296 43.357507 69.534370
91.430558 43.335178 70.690685
22.109847 45.112373 67.254977
17.253088 45.115737 69.788313
92.576968 44.983428 71.414311
95.319738 45.259523 70.297816
98.479246 45.508864 69.503666
19.560691 47.478894 68.595053
22.165331 47.434964 67.279740
17.213807 47.509944 69.918380
95.977067 47.175388 71.292920
98.932902 47.350064 70.268735
102.147414 47.478422 69.231193
22.398026 49.464741 68.339581
18.590860 49.508675 70.850491
20.731106 50.407996 69.866785
99.061031 49.288759 71.134852
96.701592 48.634486 71.774524
102.256276 49.322173 69.882376
104.459074 49.327528 68.727860
22.454226 51.439324 70.871857
102.632144 51.257377 70.046371
99.946120 51.330849 71.526735
27.481067 52.892458 71.049180
30.878560 53.568966 70.796729
34.428920 54.203413 70.544172
100.438061 53.109182 71.719474
102.703369 53.198574 70.273548
104.466777 53.227941 68.878399
39.287222 55.728155 70.377523
102.490337 55.182237 70.035491
42.669753 57.284361 70.820349
41.742790 56.098245 71.320793
100.273587 57.764689 71.347358
46.226978 59.594857 71.095481
100.608776 59.368393 69.480387
99.475938 59.546450 71.230359
49.567447 61.883912 71.185740
98.952017 61.448388 70.482309
51.171458 63.409895 70.698804
98.167029 63.457722 70.430781
52.841939 64.622274 70.550614
54.531022 65.729188 70.466356
98.007888 65.450088 70.345489
56.341165 66.850906 70.401352
58.166630 67.994118 70.342337
97.026774 67.494365 68.367324
98.475361 67.326879 70.344382
60.187719 69.074843 70.359665
62.237250 70.129930 70.398109
99.318413 69.410751 69.933543
64.561987 70.912826 70.400599
67.157419 71.602620 70.421367
70.657331 71.952478 70.447977
74.495886 72.126995 70.480045
78.400909 72.096665 70.446422
82.204683 72.162727 70.368917
85.942161 72.499977 70.274847
94.937940 71.846959 67.294541
98.457144 72.150080 68.134419
103.046387 72.407365 70.756381
91.175563 74.023216 70.615549
95.560458 73.682793 68.291956
98.743285 73.883566 67.986631
101.263610 74.051851 68.901940
103.593606 74.262294 70.087826
96.188735 76.025933 70.802914
99.049175 75.190756 68.947205
99.418344 76.378431 70.141770
102.480126 75.843738 70.789146
62.077923 32.061784 73.727081
66.613362 31.561919 72.442982
70.891302 32.570977 73.467168
55.281659 33.314329 73.330425
51.079753 34.897725 73.270045
53.706867 34.245796 74.356284
58.605370 32.469549 73.617305
75.320566 34.283240 73.817685
47.063418 36.658234 73.017859
49.638697 36.076856 74.149085
79.332916 36.766325 73.577745
42.901292 38.676767 73.035649
82.644020 39.079412 72.902226
80.399653 38.143045 74.086469
19.089262 39.350479 74.162884
15.712453 41.043116 74.255449
22.144250 39.427009 71.866222
21.792192 38.894473 73.821964
24.792963 39.397209 73.515008
30.892459 40.211477 73.073984
35.217505 39.521647 71.898217
34.992508 40.209222 73.428001
38.500001 40.255892 73.559587
86.028979 41.339909 72.544691
83.856770 40.550658 73.484232
15.772885 42.791101 71.745609
14.294552 42.745806 73.919648
89.003383 43.485446 72.596253
87.009101 42.723034 73.388839
14.421749 44.954892 73.565966
90.563728 45.222974 73.120053
15.700831 47.315143 71.642265
14.661748 47.108792 73.542844
92.157781 46.953788 73.648173
16.190286 48.626262 73.430722
17.855354 49.978168 73.274644
95.306218 49.449954 73.205817
20.027046 51.002815 73.170896
22.112364 52.016500 73.105212
97.417490 51.660982 73.158139
95.616170 50.962007 73.851574
24.541271 52.631363 73.031354
27.170195 53.178469 73.016371
30.743336 53.272151 72.985012
34.558715 53.626846 72.904506
38.401464 53.804351 73.183645
98.341405 53.536613 73.382442
42.965060 55.465268 72.846309
99.173380 55.512449 73.311102
46.798338 57.344169 73.327715
99.110970 57.596914 73.399111
50.181680 59.782154 73.642338
99.032325 59.569139 73.252828
51.341342 61.541231 72.934528
98.784956 61.535391 73.087753
52.879606 63.165128 72.662765
98.782298 63.508534 73.066207
55.660670 65.245412 72.858991
54.591434 63.925835 73.620648
99.010665 65.431375 73.147260
59.049948 67.528719 73.007951
57.637257 66.186329 73.929246
99.904132 67.323922 73.092023
63.014162 69.670176 73.073758
61.204415 68.468516 74.063731
102.368696 70.116163 73.399380
67.255407 71.119912 72.965262
65.504308 70.461595 74.063112
70.752977 71.679096 73.150235
74.548176 71.862285 73.224005
78.381085 71.973359 73.290365
82.121619 72.173004 73.235482
85.443145 72.637175 73.150847
104.259863 71.848635 73.197132
88.148255 73.416316 73.056953
90.526059 74.394301 72.961356
105.210265 74.469505 71.774129
105.526249 73.323866 73.312319
106.439431 74.687311 73.526164
93.044639 75.458676 72.924934
95.404098 76.580267 72.949435
105.580112 75.983359 73.851375
99.806595 77.184822 71.809327
97.826721 77.286336 73.211737
100.219452 77.794776 73.529368
102.730971 77.397287 73.860411
66.240418 32.836390 75.837799
59.164875 33.332486 75.877192
55.087779 34.839259 76.011576
57.773587 34.185237 76.893313
62.614804 32.744930 75.989846
71.348886 34.195698 76.987363
51.210301 36.857152 75.795317
53.782883 36.086744 76.785130
75.873967 36.062980 76.984201
47.257162 39.130459 75.354196
50.104371 38.907712 76.605582
79.753919 38.443656 76.315526
16.656088 39.849933 76.490683
18.656260 39.122902 76.326784
14.949160 40.905554 76.628212
21.420891 39.301441 76.008693
25.999775 40.665552 76.378677
43.532174 41.105144 75.211005
46.818774 41.017877 76.124149
49.729144 40.910561 77.189158
83.513456 40.999062 75.640279
14.203321 42.701355 76.520439
31.284143 42.848301 76.621991
35.168760 41.448269 74.794383
35.450500 42.995822 75.975502
39.284667 42.951243 75.588964
43.203717 43.004030 75.917668
46.858471 42.991149 76.667317
49.192205 42.375038 77.300716
86.464792 43.192401 75.570219
84.767350 42.272892 76.699373
14.098262 44.745053 76.291550
35.479731 45.122321 76.614267
31.807003 45.134716 77.441311
39.343545 45.083431 76.194929
42.987663 45.096545 76.296513
46.287515 45.115474 76.748561
89.069163 45.413897 75.487873
87.617925 44.581278 76.622444
15.417794 46.742791 75.825638
30.962470 47.577418 77.546736
35.298458 47.416057 76.775951
39.216959 47.298113 76.382712
42.898216 47.245889 76.425721
46.271742 47.238334 76.934726
90.540869 47.243364 75.814301
19.046588 49.469371 75.690327
26.673699 49.829879 77.163736
27.894395 48.349820 78.074227
30.862982 49.785076 76.831957
35.061607 49.577524 76.383132
39.094580 49.452159 76.168644
42.827056 49.352719 76.351573
46.138837 49.326163 76.857427
91.859300 49.122554 76.168774
23.188389 51.519000 75.049591
22.487785 50.163405 76.717936
26.659016 51.678957 75.764736
30.732009 51.567046 75.616181
34.881260 51.436290 75.602157
38.990404 51.412442 75.480831
43.015113 51.339627 75.975986
46.477522 51.317767 76.736641
94.516281 51.667946 75.550236
26.919233 52.626635 74.421900
34.705614 52.666106 74.429099
43.540819 53.118987 75.208089
46.791581 53.220286 76.245044
96.707941 53.735008 75.387982
94.924353 53.031067 76.298303
47.734520 55.057165 75.673269
98.118087 55.487209 75.525108
50.667352 57.125358 76.081522
49.999585 55.767341 76.526698
99.057971 57.446727 75.333348
53.764456 59.773806 76.691297
99.438943 59.491303 75.175003
52.980876 61.502131 74.547482
54.586757 61.547246 76.101684
99.973289 61.573640 75.227041
55.693508 63.366510 75.401610
99.844904 63.622737 75.382841
58.708041 65.598940 75.829386
57.678135 64.179094 76.635714
100.353986 65.610198 76.029825
62.089092 67.788352 75.901540
60.808733 66.431398 76.923198
100.593733 67.283875 75.990365
66.800435 70.002333 75.867791
101.435395 68.647784 75.830248
102.553276 70.051882 75.735674
71.010043 71.114694 75.619590
69.464740 70.530465 76.832158
74.582146 71.507729 75.737086
78.407435 71.635699 76.048970
82.324531 71.946923 76.062822
86.052953 72.502410 76.042732
103.554489 72.016844 75.816869
91.242524 74.150467 75.467102
105.838319 74.808995 75.457041
96.121545 76.144432 75.216951
106.168954 76.246044 75.786674
100.623811 77.471582 75.356913
103.271577 77.688814 75.777350
104.969555 77.105368 75.816762
62.850807 33.619505 77.597022
59.213168 34.844439 78.127941
62.817198 34.620290 79.064411
66.867537 34.621078 79.223027
55.365499 36.784506 78.055035
58.678176 36.427008 79.391263
62.267730 36.201790 80.298017
70.617885 34.780194 79.290124
73.079731 35.519449 79.327923
75.116624 36.410797 79.395556
52.545346 38.810649 77.764966
55.011864 38.667642 78.984257
58.156153 38.340552 80.235781
76.960111 37.526618 79.254371
78.865848 38.738401 79.203499
18.465104 39.905917 78.072169
15.710212 41.178548 78.561841
21.647095 40.900874 78.798634
54.381601 40.881364 79.387289
80.906646 40.231999 79.397448
14.784072 42.602262 78.942004
25.330618 43.114357 79.004795
50.971076 43.227140 78.147461
53.793701 43.092488 79.499679
84.306204 42.541260 78.961740
15.412605 44.333271 78.568652
25.739987 45.174791 79.454071
22.421787 45.190292 79.981527
28.699353 45.155549 78.414279
48.806667 45.170921 77.451543
51.178037 45.211676 78.339298
53.814738 45.187255 79.682080
87.191830 45.126406 78.863633
18.960106 46.662375 78.685233
22.288036 47.088458 79.305457
25.917322 47.236260 78.823364
50.979046 47.260478 78.407121
53.622034 47.257624 79.628682
89.245960 47.444524 78.289658
88.033144 46.568475 79.661298
22.333805 48.639514 78.046149
48.754619 49.322254 77.586175
51.214448 49.331888 78.491453
53.806071 49.322416 79.791581
90.403635 49.408188 78.387576
51.130284 51.352209 78.416522
53.737294 51.373783 79.691311
91.358689 51.437046 78.942172
49.226738 53.254756 77.207569
51.500004 53.293379 78.277282
54.023467 53.330765 79.674408
94.111569 53.403290 78.288250
91.976345 52.868559 79.493055
51.503125 55.055034 77.734483
54.094634 55.235166 79.284633
98.431859 55.078931 78.128917
95.434008 54.310245 79.073394
54.581016 57.096852 78.906995
100.330090 57.333892 76.976276
57.385063 59.840496 79.761465
101.208527 59.248505 76.603204
56.337563 61.609740 77.671565
58.093146 61.656676 79.256299
103.875897 61.635210 77.814000
59.013237 63.512604 78.481396
101.603420 63.669497 77.039686
103.742972 63.657225 78.467743
61.987716 65.670839 78.767496
61.081249 64.247813 79.696154
102.864505 65.466628 79.308102
101.298991 66.330001 78.109689
66.300016 67.991006 78.982226
100.805167 67.779652 78.877608
70.929875 69.976965 78.667708
101.499351 69.966072 77.647116
99.994309 69.801602 79.559785
74.532685 71.014176 77.692703
74.577823 70.456103 79.615090
78.056874 70.771555 79.889199
82.888590 71.509507 78.698624
86.505857 71.883892 78.858293
90.791699 72.281204 79.327967
99.246099 71.992478 79.183727
96.054898 74.003921 78.151641
95.195729 72.398582 79.724524
99.830274 74.263004 78.559482
102.933333 74.620440 77.729693
100.471032 75.952435 77.521470
103.397447 76.241117 77.803702
105.092087 76.254585 77.001919
103.360957 77.131867 76.967553
67.536627 36.799910 81.978827
70.663467 35.686002 80.830100
70.976914 36.628450 82.165014
74.081223 37.132636 81.528712
62.793801 38.882899 82.356793
77.529611 38.956990 81.546019
75.513747 38.231464 82.461238
18.223735 41.432958 80.161589
59.327049 41.042268 81.967152
61.713006 40.272326 82.873898
79.846202 40.437833 81.771131
16.319268 42.596136 80.261015
18.118023 42.599609 81.087847
20.600422 42.758319 80.550104
56.196097 43.064192 80.819362
58.415313 43.060757 82.085204
81.775090 41.706080 81.697634
83.619644 42.856378 81.637819
18.347530 44.026703 80.489439
58.106830 45.112411 82.077642
85.049885 44.020767 81.472675
86.349791 45.339830 81.448472
55.820521 47.234920 80.889860
57.900890 47.198636 82.133969
87.091382 47.203192 81.556187
57.910591 49.268317 82.201406
89.167682 49.441214 80.310618
87.845110 49.454353 82.168876
55.885313 51.359578 80.963592
57.883709 51.340445 82.246324
88.601591 51.454668 82.382619
57.990214 53.354110 82.236577
90.893282 53.307911 81.568655
88.985977 52.831392 82.850370
56.218440 55.295164 80.705584
58.168718 55.334542 82.111190
94.355195 54.113500 81.213137
91.717523 54.223783 82.362540
102.768801 54.261456 79.580864
102.867131 55.572358 78.571880
98.835977 53.225122 81.188896
102.832318 53.069993 80.680444
97.028406 54.180265 79.985854
106.573055 55.690172 79.477686
106.568984 53.527014 81.229369
108.176745 54.778669 80.390796
58.485686 57.201825 81.836708
103.449111 57.454857 78.016274
106.908717 57.559401 78.879804
109.315584 57.577665 80.043943
110.138566 55.571467 81.578635
111.295867 57.556172 81.506816
60.865269 59.845804 82.733316
103.913788 59.538183 77.752644
107.108601 59.632876 78.988560
110.915847 59.621345 81.534558
59.869333 61.666012 80.792969
61.700638 61.616671 82.460183
106.949116 61.674677 79.097985
109.085938 61.570404 80.301856
110.630168 61.498556 81.638987
62.444349 63.456476 81.528910
106.458176 63.362559 79.921698
109.229022 62.770239 81.735905
107.660857 63.901610 81.743797
66.216871 65.806464 81.971529
105.543688 64.895300 81.759101
103.557038 65.946249 81.762646
70.472075 67.964665 82.012910
101.644215 66.950859 81.793975
99.858783 68.116634 81.841084
75.131473 69.622047 81.800120
78.687523 70.157176 82.259956
82.649356 70.480352 82.484284
97.871842 69.568478 81.753897
86.637627 71.252520 80.977533
86.639739 70.597597 82.964559
90.650752 70.606715 82.893696
94.748057 71.198030 81.165589
94.485351 70.209621 82.807026
67.749683 39.179532 83.828844
71.082807 37.784273 83.172693
71.144045 39.044012 84.158987
74.364072 39.080994 83.531818
63.552351 41.067411 83.694940
67.232256 40.865525 84.586651
71.080593 40.772620 84.842836
74.873946 40.797728 84.619547
78.315473 41.137369 83.618209
60.727980 43.019203 83.159139
63.313426 42.934665 84.172848
66.938954 42.779128 84.977094
71.002746 42.638051 85.499246
75.085543 42.657494 85.355128
78.951243 42.877130 84.778897
82.133157 43.356725 83.556880
62.895864 44.930706 84.246683
66.581150 44.744529 85.321477
70.932940 44.603980 85.954466
75.208605 44.395090 86.057755
79.120025 44.712775 85.540163
82.669367 44.951259 84.517478
84.777801 45.217497 83.131885
60.173467 47.122365 83.350002
62.733919 46.990298 84.533318
66.211113 46.724254 85.585969
83.145288 46.864331 84.813868
62.456667 49.152923 84.669662
85.912627 49.621774 84.090609
59.946681 51.289064 83.556613
62.058306 51.239617 84.862206
86.798002 51.507980 84.337723
62.034729 53.297855 84.915333
87.563020 53.292232 84.699619
102.803174 51.913285 82.188567
99.255529 51.314227 84.272294
102.790732 50.686033 83.708502
97.649979 52.490063 82.936628
106.231213 51.025844 84.417341
110.518116 53.378963 84.533187
60.101292 55.361750 83.517463
62.037648 55.377830 84.934775
90.394063 54.718524 84.667966
88.099796 54.618150 85.545243
95.606651 53.229902 84.201197
93.095630 54.366167 84.225970
112.012983 55.353851 84.047536
62.344541 57.467681 84.739926
112.234465 57.494724 83.945093
62.842253 59.580527 84.557562
111.920599 59.585684 83.801615
63.840188 61.399406 84.386803
110.517209 61.381341 83.663305
66.432106 63.400036 84.781764
65.602115 62.111636 85.425995
107.303593 63.732272 83.891863
70.353357 65.797323 84.945510
103.096691 65.809906 84.083137
74.713504 67.830785 84.859271
98.516766 67.875115 84.410002
79.317264 69.352947 84.440619
82.793075 69.782757 84.759619
86.707640 69.793359 85.041875
90.676072 69.776100 84.946626
94.320242 69.269297 84.677708
95.987105 68.459921 85.577800
71.517124 47.385644 86.921710
75.156689 45.895157 86.588289
75.084130 47.343427 87.198874
78.456840 47.398542 86.783693
67.532310 49.378969 86.721194
71.129024 49.164635 87.567266
74.933033 49.061435 87.804790
78.624614 49.127476 87.543096
81.874480 49.459029 86.561238
64.460489 51.217149 86.048627
67.195664 51.183235 87.207553
70.920258 51.165449 88.186210
74.863973 50.725462 88.526247
78.677816 51.008466 88.168307
82.229648 51.258452 87.244742
84.712008 51.421072 85.889403
102.881106 49.718137 85.600696
100.368797 49.668316 87.364769
102.896224 48.806029 87.694391
98.114399 50.758968 87.052521
106.076731 49.003801 88.246748
110.197547 51.038500 87.968471
66.631943 53.190402 87.326239
69.707562 53.154416 88.558360
83.069847 53.334423 87.619075
96.421230 52.066858 86.985556
94.693000 53.420922 87.007422
111.959408 53.007233 87.352916
64.164795 55.330309 86.256591
66.500150 55.268659 87.572478
69.534093 55.253410 88.725184
86.443542 55.406542 87.353516
83.952285 54.849502 88.132818
93.054706 54.959775 87.361689
